ply
format ascii 1.0
element face 0
property list uchar int vertex_indices
element vertex 290
property float x
property float y
property float z
property uchar diffuse_red
property uchar diffuse_green
property uchar diffuse_blue
end_header
1.877150e+00 -1.121712e+00 -6.727991e+00 203 182 70
2.153125e+00 -8.548099e-01 -6.203591e+00 221 195 83
2.153125e+00 -8.548099e-01 -6.203591e+00 221 195 83
2.169258e+00 -8.426007e-01 -6.159514e+00 177 153 51
2.177545e+00 -7.446181e-01 -6.192623e+00 214 189 76
2.177449e+00 -6.633131e-01 -6.141944e+00 215 190 73
2.163712e+00 -7.823574e-01 -6.190202e+00 215 191 85
2.478835e+00 -4.509240e-01 -5.396253e+00 226 182 185
2.139086e+00 -9.546152e-01 -6.259668e+00 212 189 70
1.883627e+00 -1.085119e+00 -6.741882e+00 41 28 0
1.883627e+00 -1.085119e+00 -6.741882e+00 41 28 0
2.484094e+00 -3.359446e-01 -5.379187e+00 234 192 195
2.478154e+00 -3.868066e-01 -5.398559e+00 239 180 181
2.068585e+00 -6.017970e-01 -6.301730e+00 218 186 68
-9.240086e-01 5.527971e-01 -4.552081e+00 21 27 43
-9.240086e-01 5.527971e-01 -4.552081e+00 21 27 43
-9.240086e-01 5.527971e-01 -4.552081e+00 21 27 43
-8.885024e-01 -1.959020e-01 -5.001742e+00 23 24 28
8.347351e-01 8.735411e-02 -5.565011e+00 210 178 197
3.134314e-02 3.816038e-01 -5.428671e+00 152 22 32
-9.676589e-01 6.634712e-01 -4.572985e+00 192 205 242
1.011725e+00 2.366719e-02 -5.437324e+00 180 117 131
1.295175e+00 2.340714e-01 -5.502165e+00 188 119 130
9.697451e-01 5.959194e-01 -5.435924e+00 213 193 208
9.697451e-01 5.959194e-01 -5.435924e+00 213 193 208
3.384179e-01 5.201390e-01 -5.334885e+00 72 2 3
-9.092162e-01 4.271071e-01 -4.611321e+00 187 201 240
7.943487e-01 5.885053e-01 -5.425631e+00 95 0 2
4.340004e-01 1.022401e+00 -5.493720e+00 163 18 29
2.297511e+00 -1.107774e+00 -5.871581e+00 202 197 106
9.781641e-01 7.155477e-02 -5.576352e+00 72 5 8
-2.031370e-02 4.745586e-01 -5.449525e+00 225 56 94
-2.031370e-02 4.745586e-01 -5.449525e+00 225 56 94
-6.120834e-01 4.778286e-01 -4.608385e+00 108 54 70
1.332036e-01 6.784029e-01 -5.336991e+00 217 202 221
-9.772702e-01 5.462647e-01 -4.557452e+00 18 20 30
3.764577e-01 1.110493e+00 -5.496419e+00 171 150 172
2.478835e+00 -4.509240e-01 -5.396253e+00 226 182 185
8.761302e-01 -4.100540e-02 -5.537973e+00 51 9 18
7.988739e-01 1.566542e-01 -5.670966e+00 139 29 46
-5.272241e-01 3.474728e-01 -4.536642e+00 157 99 113
1.010175e+00 6.824316e-01 -5.442650e+00 44 9 7
9.395569e-02 6.066702e-01 -5.332245e+00 82 11 26
-6.260590e-01 5.211877e-01 -4.590498e+00 235 181 195
-1.014070e+00 5.008038e-01 -4.577619e+00 183 230 255
-9.652281e-01 6.248054e-01 -4.554569e+00 179 225 255
-9.677257e-01 6.825400e-01 -4.556835e+00 243 231 243
-8.775113e-01 7.881429e-01 -4.521028e+00 225 165 177
9.238196e-01 1.007175e-02 -5.534900e+00 66 13 22
1.209662e+00 1.205897e-01 -5.462834e+00 95 35 39
1.088708e+00 1.273188e-01 -5.518974e+00 172 101 113
6.254129e-01 2.272671e-01 -5.584904e+00 115 4 13
8.833927e-01 6.322077e-01 -5.451825e+00 104 11 16
-1.166043e-01 6.410256e-01 -5.358168e+00 108 9 22
-9.346537e-01 5.213228e-01 -4.572925e+00 255 254 254
5.180856e-01 9.848227e-01 -5.502617e+00 153 14 28
-9.771981e-01 7.988568e-01 -4.541244e+00 227 167 179
-1.085077e+00 7.969945e-01 -4.554198e+00 133 74 96
4.107635e-01 1.158160e+00 -5.503403e+00 166 22 33
1.543255e+00 1.294027e+00 -5.251975e+00 69 31 28
1.543255e+00 1.294027e+00 -5.251975e+00 69 31 28
1.755463e+00 -3.378613e+00 -1.224230e+01 97 90 106
-1.202255e+00 -2.727397e+00 -1.231653e+01 72 44 55
2.166457e+00 -8.258791e-01 -6.218332e+00 214 191 78
-8.879283e-01 -1.330828e-01 -4.965732e+00 251 253 255
8.873040e-01 -5.535083e-03 -5.587381e+00 173 134 153
2.103964e+00 6.172424e-01 -6.265568e+00 110 64 25
-9.169356e-01 4.554282e-01 -4.575640e+00 165 217 254
-1.039352e+00 4.731291e-01 -4.581308e+00 168 156 197
-6.714110e-01 6.551729e-01 -4.540951e+00 170 104 126
-9.258990e-01 7.709050e-01 -4.533953e+00 178 107 123
-9.692810e-01 7.668900e-01 -4.528632e+00 174 107 127
-9.692810e-01 7.668900e-01 -4.528632e+00 174 107 127
1.668262e+00 1.418484e+00 -5.419800e+00 69 30 30
9.522445e-01 1.621309e+00 -5.660522e+00 140 24 34
2.502411e+00 -2.885725e+00 -1.003255e+01 103 99 121
2.272320e+00 -3.012247e+00 -1.082755e+01 108 101 117
2.391020e+00 -2.560045e+00 -1.042997e+01 64 53 67
2.329268e+00 -2.382803e+00 -1.083537e+01 74 53 61
2.270518e+00 -2.375761e+00 -1.084179e+01 124 120 134
2.270518e+00 -2.375761e+00 -1.084179e+01 124 120 134
2.460762e+00 -5.556884e-01 -5.454971e+00 240 184 195
2.476056e+00 -5.195371e-01 -5.394005e+00 242 193 212
2.128380e+00 -6.594441e-01 -6.258030e+00 164 169 117
2.489502e+00 -4.377327e-01 -5.382810e+00 234 173 188
2.181401e+00 -5.702223e-01 -6.162175e+00 177 147 41
9.339924e-01 4.536098e-02 -5.550455e+00 171 124 141
-5.548662e-01 1.107967e-02 -4.689240e+00 226 178 187
-5.449799e-01 5.459815e-02 -4.644659e+00 219 171 182
-5.065082e-01 1.323690e-01 -4.612420e+00 157 101 112
-5.065082e-01 1.323690e-01 -4.612420e+00 157 101 112
-9.505727e-01 1.284979e-01 -4.588533e+00 215 151 168
-5.134316e-01 2.919482e-01 -4.565905e+00 157 99 112
-9.397138e-01 2.789450e-01 -4.619477e+00 245 182 191
8.169959e-02 6.352839e-01 -5.315517e+00 233 218 230
1.101997e-01 6.535573e-01 -5.312086e+00 229 219 231
-9.187561e-01 6.808622e-01 -4.546463e+00 241 217 230
3.526096e-01 9.709812e-01 -5.483945e+00 203 132 150
-1.006650e+00 7.818564e-01 -4.532954e+00 232 172 179
4.080702e-01 1.081336e+00 -5.490798e+00 152 22 54
2.694123e+00 -3.253184e+00 -9.561707e+00 111 103 121
2.397984e+00 -3.575160e+00 -1.042948e+01 100 95 114
2.490549e+00 -3.420924e+00 -1.020210e+01 115 112 130
2.514985e+00 -3.095690e+00 -1.012287e+01 117 106 126
2.410379e+00 -2.672654e+00 -1.045325e+01 73 58 66
2.081750e+00 -2.194155e+00 -1.114425e+01 107 92 111
1.905292e+00 -2.378438e+00 -1.185765e+01 97 86 99
2.063695e+00 -2.011332e+00 -1.139747e+01 107 91 101
2.475103e+00 -6.518452e-01 -5.371386e+00 247 142 75
2.163712e+00 -7.823574e-01 -6.190202e+00 215 191 85
2.484854e+00 -4.772176e-01 -5.378872e+00 249 179 194
2.490344e+00 -2.887819e-01 -5.295115e+00 215 78 123
8.786038e-01 5.929096e-02 -5.563599e+00 223 194 208
4.841793e-02 6.206148e-01 -5.311535e+00 239 225 235
-1.352086e-01 6.107201e-01 -5.307336e+00 209 176 193
1.534877e+00 1.085191e+00 -5.193791e+00 159 96 109
5.313797e-01 1.018488e+00 -5.501361e+00 212 136 155
9.482169e-01 -2.489075e-01 -5.402103e+00 215 148 157
-5.503028e-02 5.537191e-01 -5.396628e+00 243 238 244
-2.970322e-01 6.211064e-01 -5.148058e+00 34 19 22
1.942771e+00 8.412820e-01 -6.196044e+00 192 132 142
-1.044727e-01 3.365510e-01 -5.478133e+00 235 234 242
-2.093048e-02 1.521716e+00 -5.819446e+00 161 15 26
-1.275972e+00 -2.910605e+00 -1.236885e+01 58 58 69
-8.506097e-02 2.230831e-01 -5.631035e+00 198 32 51
1.382721e+00 3.524798e-01 -5.635839e+00 67 9 9
-2.888722e+00 3.102032e+00 -1.158003e+01 23 21 26
3.452689e-01 -3.453129e+00 -1.302010e+01 9 9 9
7.410711e-01 1.087207e-01 -5.626828e+00 238 230 239
-1.722905e-01 2.635671e-01 -5.538725e+00 230 212 229
2.297511e+00 -1.107774e+00 -5.871581e+00 202 197 106
1.141482e+00 1.507299e-01 -5.496651e+00 189 123 137
2.494770e-01 5.436929e-01 -5.341465e+00 230 208 219
-7.656117e-02 7.959331e-01 -5.416937e+00 91 1 7
1.523455e+00 1.443210e+00 -5.373078e+00 169 119 130
8.322019e-01 -4.933015e+00 -1.436884e+01 42 42 51
2.346241e+00 -3.592892e+00 -1.056391e+01 37 33 48
2.346241e+00 -3.592892e+00 -1.056391e+01 37 33 48
2.942707e+00 -2.875371e+00 -8.917159e+00 60 49 63
2.634709e+00 -2.720947e+00 -9.737246e+00 64 55 67
2.389398e+00 -2.020544e+00 -8.108803e+00 188 174 148
4.839747e-01 -3.249528e+00 -1.283041e+01 104 81 65
2.491569e+00 -3.276256e-01 -5.348319e+00 224 181 194
2.491569e+00 -3.276256e-01 -5.348319e+00 224 181 194
2.196005e+00 -2.873874e-01 -6.135208e+00 220 184 47
5.753996e-01 1.716794e+00 -5.810025e+00 67 1 0
2.629493e+00 -3.155144e+00 -9.753161e+00 53 42 52
2.629493e+00 -3.155144e+00 -9.753161e+00 53 42 52
2.279705e+00 -1.920609e+00 -8.379894e+00 178 171 140
1.524186e+00 -2.584402e+00 -1.218503e+01 110 84 65
1.395125e+00 -2.537777e+00 -1.220841e+01 18 29 45
2.053910e+00 -2.160876e+00 -1.135855e+01 54 41 43
2.454520e+00 -5.579813e-01 -5.386438e+00 225 190 208
2.039133e+00 3.595900e-01 -6.322320e+00 147 111 50
4.660270e-01 8.842842e-01 -5.446148e+00 148 19 29
1.668262e+00 1.418484e+00 -5.419800e+00 69 30 30
2.293094e+00 -3.857175e+00 -1.070190e+01 84 79 97
2.507404e+00 -3.286270e+00 -1.023736e+01 98 89 106
2.813126e+00 -2.829574e+00 -9.204182e+00 56 43 54
1.738402e+00 -3.678887e+00 -1.226199e+01 10 10 12
1.738402e+00 -3.678887e+00 -1.226199e+01 10 10 12
2.675136e+00 -2.833648e+00 -9.656049e+00 59 47 61
2.675136e+00 -2.833648e+00 -9.656049e+00 59 47 61
2.487574e+00 -2.953894e+00 -1.022491e+01 59 52 64
2.487574e+00 -2.953894e+00 -1.022491e+01 59 52 64
1.651536e+00 -2.773087e+00 -1.241370e+01 47 38 45
1.971622e+00 -2.322143e+00 -1.152891e+01 52 42 42
1.877150e+00 -1.121712e+00 -6.727991e+00 203 182 70
2.462461e+00 -5.614642e-01 -5.400789e+00 227 196 213
2.488176e+00 -3.832547e-01 -5.345292e+00 236 188 201
2.493517e+00 -3.231065e-01 -5.320763e+00 245 191 207
2.104739e+00 -2.458603e-01 -6.111049e+00 114 69 10
-5.768257e-01 -4.273924e-02 -4.729450e+00 229 178 190
-4.801766e-01 2.252985e-01 -4.600675e+00 225 164 172
4.569257e-01 2.568084e-01 -5.589941e+00 125 4 14
2.075888e+00 3.062714e-01 -6.339906e+00 84 49 7
-4.196586e-01 4.589260e-01 -4.604544e+00 207 155 168
2.138882e+00 6.408216e-01 -6.223038e+00 176 139 90
3.445980e-01 5.880323e-01 -5.384581e+00 156 27 44
-6.451425e-01 6.050283e-01 -4.555740e+00 189 126 143
-6.451425e-01 6.050283e-01 -4.555740e+00 189 126 143
2.683859e-01 7.188097e-01 -5.263096e+00 219 197 209
4.157000e-01 7.354977e-01 -5.320425e+00 246 224 228
4.157000e-01 7.354977e-01 -5.320425e+00 246 224 228
-6.714110e-01 6.551729e-01 -4.540951e+00 170 104 126
4.982439e-01 8.510694e-01 -5.481308e+00 205 172 197
-7.566927e-01 7.165021e-01 -4.524019e+00 233 178 193
-7.971702e-01 7.500970e-01 -4.527850e+00 226 172 182
-1.062813e+00 7.699698e-01 -4.545223e+00 229 167 180
1.186768e+00 1.134325e+00 -5.149062e+00 184 132 143
2.769277e+00 -3.093945e+00 -9.393095e+00 52 45 57
2.467626e+00 -3.384309e+00 -1.030825e+01 101 97 119
2.410590e+00 -3.381201e+00 -1.042769e+01 105 97 118
2.163777e+00 -3.544429e+00 -1.107192e+01 53 51 65
2.148046e+00 -3.482651e+00 -1.109009e+01 85 78 96
2.090398e+00 -3.425338e+00 -1.122588e+01 39 35 49
2.753918e+00 -2.733810e+00 -9.460543e+00 57 41 47
2.753918e+00 -2.733810e+00 -9.460543e+00 57 41 47
2.381362e+00 -2.866191e+00 -1.055520e+01 57 46 54
1.636078e+00 -3.447650e+00 -1.263383e+01 88 85 103
2.417008e+00 -2.112686e+00 -8.037079e+00 187 178 144
2.529371e+00 -2.582588e+00 -1.001251e+01 67 55 65
1.698534e+00 -3.074308e+00 -1.244109e+01 54 48 60
2.279318e+00 -1.994400e+00 -8.331563e+00 113 98 80
2.099175e+00 -2.392343e+00 -1.127472e+01 63 47 57
2.309767e+00 -2.244613e+00 -1.064990e+01 121 118 134
2.117986e+00 -8.325573e-01 -6.265792e+00 216 192 86
2.468047e+00 -5.886082e-01 -5.475034e+00 221 70 104
2.465343e+00 -5.052383e-01 -5.439059e+00 239 180 193
2.026094e+00 -5.209422e-01 -6.432623e+00 228 191 78
2.212724e+00 -4.332769e-01 -6.072061e+00 229 196 57
2.212724e+00 -4.332769e-01 -6.072061e+00 229 196 57
8.071747e-01 -3.262550e-01 -5.416126e+00 169 46 60
2.162287e+00 -3.214296e-01 -6.119736e+00 97 62 2
2.498227e+00 -2.656528e-01 -5.301446e+00 232 191 210
2.136511e+00 -2.828750e-01 -6.122611e+00 120 75 14
2.498911e+00 -2.117197e-01 -5.336849e+00 240 192 195
2.108005e+00 3.206158e-01 -6.327517e+00 176 139 48
-3.988354e-01 4.771872e-01 -4.643471e+00 171 123 144
-3.857597e-01 5.050414e-01 -4.666914e+00 220 191 199
-1.058158e+00 5.168773e-01 -4.585498e+00 173 160 195
1.224411e-01 6.329524e-01 -5.317940e+00 73 21 45
3.506302e-01 6.776260e-01 -5.331109e+00 243 214 219
1.326672e-01 7.257861e-01 -5.357501e+00 71 6 13
-6.443134e-01 6.492921e-01 -4.562457e+00 237 174 184
-9.294053e-01 7.436426e-01 -4.520923e+00 228 165 173
-9.857624e-01 8.291303e-01 -4.547744e+00 157 100 122
-3.687313e+00 3.807339e+00 -1.118635e+01 146 93 86
2.171371e+00 -3.895013e+00 -1.101981e+01 51 45 59
2.210831e+00 -3.839285e+00 -1.090847e+01 89 87 105
9.795021e-01 -5.040726e+00 -1.425102e+01 48 48 57
2.204413e+00 -3.731730e+00 -1.088625e+01 88 85 102
2.642741e+00 -3.307031e+00 -9.780991e+00 59 54 71
2.925580e+00 -2.961724e+00 -8.924877e+00 56 47 62
2.361760e+00 -3.461972e+00 -1.063025e+01 99 95 118
2.298519e+00 -3.489257e+00 -1.080682e+01 56 46 58
2.774502e+00 -2.942237e+00 -9.343856e+00 117 110 126
2.337495e+00 -3.261948e+00 -1.055863e+01 53 46 61
2.490682e+00 -3.130146e+00 -1.020639e+01 68 59 74
2.134405e+00 -3.395958e+00 -1.119652e+01 88 81 97
1.618485e+00 -3.834962e+00 -1.263304e+01 36 26 32
2.474322e+00 -3.050730e+00 -1.024384e+01 100 93 109
1.960897e+00 -3.479996e+00 -1.169622e+01 52 47 68
1.960897e+00 -3.479996e+00 -1.169622e+01 52 47 68
2.626005e+00 -2.794205e+00 -9.775538e+00 47 34 47
2.079839e+00 -3.264523e+00 -1.141351e+01 90 78 86
1.827439e+00 -3.454763e+00 -1.209988e+01 44 36 49
2.420541e+00 -2.880968e+00 -1.033196e+01 57 46 60
1.965807e+00 -3.142013e+00 -1.166729e+01 57 49 60
1.964028e+00 -3.060265e+00 -1.162482e+01 89 85 99
1.964028e+00 -3.060265e+00 -1.162482e+01 89 85 99
2.475622e+00 -2.532426e+00 -1.022309e+01 106 99 115
2.475622e+00 -2.532426e+00 -1.022309e+01 106 99 115
2.391020e+00 -2.560045e+00 -1.042997e+01 64 53 67
2.391020e+00 -2.560045e+00 -1.042997e+01 64 53 67
1.268676e+00 -3.038091e+00 -1.368914e+01 74 67 78
2.137913e+00 -2.212220e+00 -1.115977e+01 68 55 68
2.298769e+00 -1.105206e+00 -5.873772e+00 197 196 106
2.319850e+00 -2.036953e+00 -1.066712e+01 71 60 79
2.179337e+00 -2.021784e+00 -1.090547e+01 91 79 87
2.179337e+00 -2.021784e+00 -1.090547e+01 91 79 87
2.015571e+00 -2.039939e+00 -1.142839e+01 62 50 55
2.471988e+00 -4.642701e-01 -5.421768e+00 233 187 193
2.226481e+00 -2.168395e-01 -6.046039e+00 175 144 33
2.504707e+00 -1.710713e-01 -5.325226e+00 237 192 205
2.148115e+00 5.658893e-01 -6.181786e+00 139 84 16
-8.093752e-01 4.971153e-01 -4.563514e+00 182 160 191
-1.010825e+00 5.423697e-01 -4.555643e+00 147 198 228
-8.809476e-01 6.705095e-01 -4.546771e+00 235 199 217
5.002583e-01 8.976149e-01 -5.457543e+00 202 159 176
-7.791734e-01 7.703769e-01 -4.527724e+00 146 87 107
3.526096e-01 9.709812e-01 -5.483945e+00 203 132 150
-8.853640e-01 8.470214e-01 -4.546932e+00 216 161 173
4.934719e-01 1.114271e+00 -5.529294e+00 142 34 59
-3.696401e+00 3.381714e+00 -1.117122e+01 144 80 72
-4.997580e+00 3.406075e+00 -1.094154e+01 128 72 58
-4.997580e+00 3.406075e+00 -1.094154e+01 128 72 58
-5.141006e+00 3.394976e+00 -1.088981e+01 125 72 64
-5.141006e+00 3.394976e+00 -1.088981e+01 125 72 64
-3.614331e+00 3.522739e+00 -1.124059e+01 129 57 41
-3.693030e+00 3.534342e+00 -1.127779e+01 130 57 30
-4.716045e+00 3.483787e+00 -1.091918e+01 130 72 56
-3.581660e+00 3.596765e+00 -1.121613e+01 132 53 30
-4.595198e+00 3.587928e+00 -1.096679e+01 134 72 65
-4.555596e+00 3.671002e+00 -1.094329e+01 135 75 58
-3.306827e+00 3.808048e+00 -1.124365e+01 143 85 86
-3.010983e-02 7.971456e-02 -1.824264e-01 0 255 0
-2.989865e-02 7.929207e-02 -2.324242e-01 255 255 0
-6.575398e-01 7.581843e-01 1.566307e-01 255 0 0
-6.543657e-01 7.552946e-01 1.068153e-01 255 255 0
