ply
format ascii 1.0
element face 0
property list uchar int vertex_indices
element vertex 404
property float x
property float y
property float z
property uchar diffuse_red
property uchar diffuse_green
property uchar diffuse_blue
end_header
1.866108e+00 -1.117741e+00 -6.683919e+00 203 182 70
2.143399e+00 -8.548598e-01 -6.148787e+00 221 195 83
2.143399e+00 -8.548598e-01 -6.148787e+00 221 195 83
2.162755e+00 -8.450249e-01 -6.111289e+00 177 153 51
2.162668e+00 -7.444506e-01 -6.126542e+00 214 189 76
2.170745e+00 -6.688606e-01 -6.097629e+00 215 190 73
2.154045e+00 -7.840750e-01 -6.137108e+00 215 191 85
2.486543e+00 -4.592339e-01 -5.335047e+00 226 182 185
2.122666e+00 -9.487241e-01 -6.185787e+00 212 189 70
1.870286e+00 -1.079653e+00 -6.692462e+00 41 28 0
1.870286e+00 -1.079653e+00 -6.692462e+00 41 28 0
2.492046e+00 -3.456314e-01 -5.319668e+00 234 192 195
2.484282e+00 -3.953447e-01 -5.335771e+00 239 180 181
2.067593e+00 -6.169183e-01 -6.284104e+00 218 186 68
-8.902747e-01 5.236452e-01 -4.535515e+00 21 27 43
-8.902747e-01 5.236452e-01 -4.535515e+00 21 27 43
-8.902747e-01 5.236452e-01 -4.535515e+00 21 27 43
-8.518860e-01 -2.243765e-01 -5.002933e+00 23 24 28
8.588130e-01 6.228912e-02 -5.600754e+00 210 178 197
5.896790e-02 3.553896e-01 -5.468660e+00 152 22 32
-9.319567e-01 6.334347e-01 -4.541686e+00 192 205 242
1.033846e+00 -3.614910e-03 -5.451858e+00 180 117 131
1.310838e+00 2.110244e-01 -5.503057e+00 188 119 130
9.911226e-01 5.686569e-01 -5.459297e+00 213 193 208
9.911226e-01 5.686569e-01 -5.459297e+00 213 193 208
3.628587e-01 4.927367e-01 -5.346809e+00 72 2 3
-8.730540e-01 3.972250e-01 -4.588393e+00 187 201 240
8.185233e-01 5.613957e-01 -5.462572e+00 95 0 2
4.554604e-01 9.898827e-01 -5.511919e+00 163 18 29
2.294404e+00 -1.105342e+00 -5.803118e+00 202 197 106
9.856264e-01 5.489182e-02 -5.528219e+00 72 5 8
6.623502e-03 4.468173e-01 -5.454571e+00 225 56 94
6.623502e-03 4.468173e-01 -5.454571e+00 225 56 94
-5.793235e-01 4.496628e-01 -4.604499e+00 108 54 70
1.595391e-01 6.487644e-01 -5.365511e+00 217 202 221
-9.395829e-01 5.198849e-01 -4.516607e+00 18 20 30
3.978211e-01 1.077040e+00 -5.512164e+00 171 150 172
2.486543e+00 -4.592339e-01 -5.335047e+00 226 182 185
8.947050e-01 -6.302276e-02 -5.536406e+00 51 9 18
8.117715e-01 1.350793e-01 -5.644961e+00 139 29 46
-4.945448e-01 3.189111e-01 -4.540606e+00 157 99 113
1.028946e+00 6.552617e-01 -5.455492e+00 44 9 7
1.204599e-01 5.772033e-01 -5.350892e+00 82 11 26
-5.945312e-01 4.925488e-01 -4.595847e+00 235 181 195
-9.780396e-01 4.715248e-01 -4.550671e+00 183 230 255
-9.119788e-01 5.919243e-01 -4.430838e+00 179 225 255
-9.350578e-01 6.524133e-01 -4.541161e+00 243 231 243
-8.440811e-01 7.573054e-01 -4.496727e+00 225 165 177
9.454707e-01 -1.411309e-02 -5.553620e+00 66 13 22
1.223575e+00 9.999336e-02 -5.450640e+00 95 35 39
1.102098e+00 1.064318e-01 -5.504213e+00 172 101 113
6.467783e-01 2.009624e-01 -5.598554e+00 115 4 13
9.007834e-01 6.053775e-01 -5.454428e+00 104 11 16
-8.872107e-02 6.096234e-01 -5.364121e+00 108 9 22
-9.011267e-01 4.918159e-01 -4.559635e+00 255 254 254
5.373722e-01 9.474696e-01 -5.499757e+00 153 14 28
-9.425853e-01 7.675116e-01 -4.509881e+00 227 167 179
-1.050924e+00 7.663347e-01 -4.523698e+00 133 74 96
4.310366e-01 1.124289e+00 -5.512844e+00 166 22 33
1.563841e+00 1.271499e+00 -5.253872e+00 69 31 28
1.563841e+00 1.271499e+00 -5.253872e+00 69 31 28
1.715395e+00 -3.309306e+00 -1.222438e+01 97 90 106
-1.167948e+00 -2.752420e+00 -1.251034e+01 72 44 55
2.149767e+00 -8.233130e-01 -6.145962e+00 214 191 78
-8.540450e-01 -1.630074e-01 -4.982150e+00 251 253 255
9.058602e-01 -2.599806e-02 -5.592182e+00 173 134 153
2.087505e+00 5.918404e-01 -6.221399e+00 110 64 25
-8.808028e-01 4.257802e-01 -4.550563e+00 165 217 254
-1.006199e+00 4.448263e-01 -4.568638e+00 168 156 197
-6.388411e-01 6.262039e-01 -4.528777e+00 170 104 126
-8.915032e-01 7.402475e-01 -4.504488e+00 178 107 123
-9.355971e-01 7.364341e-01 -4.502747e+00 174 107 127
-9.355971e-01 7.364341e-01 -4.502747e+00 174 107 127
1.679805e+00 1.392324e+00 -5.400952e+00 69 30 30
9.676527e-01 1.588698e+00 -5.673646e+00 140 24 34
2.470685e+00 -2.850322e+00 -1.005127e+01 103 99 121
2.225416e+00 -2.954881e+00 -1.079863e+01 108 101 117
2.340241e+00 -2.514581e+00 -1.040017e+01 64 53 67
2.257349e+00 -2.319279e+00 -1.073103e+01 74 53 61
2.210940e+00 -2.325559e+00 -1.078674e+01 124 120 134
2.210940e+00 -2.325559e+00 -1.078674e+01 124 120 134
2.464967e+00 -5.618874e-01 -5.388631e+00 240 184 195
2.482792e+00 -5.270555e-01 -5.328828e+00 242 193 212
2.119551e+00 -6.650415e-01 -6.214713e+00 164 169 117
2.491399e+00 -4.447318e-01 -5.308127e+00 234 173 188
2.169515e+00 -5.756932e-01 -6.107394e+00 177 147 41
9.522221e-01 2.421199e-02 -5.554146e+00 171 124 141
-5.206684e-01 -1.631626e-02 -4.693798e+00 226 178 187
-5.121789e-01 2.751110e-02 -4.660344e+00 219 171 182
-4.723198e-01 1.056322e-01 -4.609615e+00 157 101 112
-4.723198e-01 1.056322e-01 -4.609615e+00 157 101 112
-9.164942e-01 9.900495e-02 -4.584131e+00 215 151 168
-4.797210e-01 2.643805e-01 -4.560667e+00 157 99 112
-9.062883e-01 2.491585e-01 -4.616431e+00 245 182 191
1.081763e-01 6.056717e-01 -5.332062e+00 233 218 230
1.361706e-01 6.244884e-01 -5.325346e+00 229 219 231
-8.869566e-01 6.515972e-01 -4.535619e+00 241 217 230
3.747536e-01 9.388357e-01 -5.501471e+00 203 132 150
-9.725037e-01 7.512418e-01 -4.503619e+00 232 172 179
4.291393e-01 1.047990e+00 -5.504317e+00 152 22 54
2.677476e+00 -3.229202e+00 -9.591485e+00 111 103 121
2.366447e+00 -3.522427e+00 -1.042434e+01 100 95 114
2.456885e+00 -3.370625e+00 -1.019059e+01 115 112 130
2.479203e+00 -3.051714e+00 -1.011959e+01 117 106 126
2.369861e+00 -2.637851e+00 -1.046447e+01 73 58 66
2.042402e+00 -2.172294e+00 -1.118832e+01 107 92 111
1.852632e+00 -2.332533e+00 -1.182537e+01 97 86 99
2.004228e+00 -1.973528e+00 -1.135193e+01 107 91 101
2.490558e+00 -6.605019e-01 -5.319195e+00 247 142 75
2.154045e+00 -7.840750e-01 -6.137108e+00 215 191 85
2.492243e+00 -4.852305e-01 -5.314685e+00 249 179 194
2.510447e+00 -3.011827e-01 -5.255165e+00 215 78 123
8.953733e-01 3.759902e-02 -5.557002e+00 223 194 208
7.531531e-02 5.907141e-01 -5.329409e+00 239 225 235
-1.070019e-01 5.805230e-01 -5.331559e+00 209 176 193
1.546374e+00 1.058675e+00 -5.163445e+00 159 96 109
5.526583e-01 9.880593e-01 -5.526182e+00 212 136 155
9.679789e-01 -2.669750e-01 -5.395373e+00 215 148 157
-2.737750e-02 5.230181e-01 -5.412478e+00 243 238 244
-2.670133e-01 5.903214e-01 -5.155984e+00 34 19 22
1.943888e+00 8.133980e-01 -6.199800e+00 192 132 142
-7.572854e-02 3.070183e-01 -5.496378e+00 235 234 242
4.020778e-04 1.481252e+00 -5.835884e+00 161 15 26
-1.221194e+00 -2.869071e+00 -1.234988e+01 58 58 69
-5.655809e-02 1.939993e-01 -5.652770e+00 198 32 51
1.394932e+00 3.292158e-01 -5.635330e+00 67 9 9
-2.873930e+00 3.017845e+00 -1.180034e+01 23 21 26
3.450264e-01 -3.369857e+00 -1.294935e+01 9 9 9
7.611275e-01 8.474229e-02 -5.638441e+00 238 230 239
-1.428351e-01 2.341154e-01 -5.558191e+00 230 212 229
2.298136e+00 -1.107872e+00 -5.812301e+00 202 197 106
1.157742e+00 1.288651e-01 -5.495859e+00 189 123 137
2.747867e-01 5.146623e-01 -5.354820e+00 230 208 219
-4.991697e-02 7.631577e-01 -5.431464e+00 91 1 7
1.537536e+00 1.416387e+00 -5.360610e+00 169 119 130
8.136199e-01 -4.791242e+00 -1.425741e+01 42 42 51
2.312248e+00 -3.536272e+00 -1.055114e+01 37 33 48
2.312248e+00 -3.536272e+00 -1.055114e+01 37 33 48
2.923063e+00 -2.853272e+00 -8.919684e+00 60 49 63
2.594573e+00 -2.682682e+00 -9.723393e+00 64 55 67
2.367390e+00 -2.002043e+00 -8.087725e+00 188 174 148
4.783799e-01 -3.172620e+00 -1.276269e+01 104 81 65
2.500952e+00 -3.375053e-01 -5.289302e+00 224 181 194
2.500952e+00 -3.375053e-01 -5.289302e+00 224 181 194
2.193391e+00 -3.000700e-01 -6.111234e+00 220 184 47
5.907765e-01 1.678222e+00 -5.820657e+00 67 1 0
2.597813e+00 -3.114737e+00 -9.745984e+00 53 42 52
2.597813e+00 -3.114737e+00 -9.745984e+00 53 42 52
2.254482e+00 -1.902115e+00 -8.363974e+00 178 171 140
1.480969e+00 -2.528621e+00 -1.213358e+01 110 84 65
1.356128e+00 -2.483924e+00 -1.215772e+01 18 29 45
1.998861e+00 -2.122010e+00 -1.132680e+01 54 41 43
2.462512e+00 -5.655040e-01 -5.323167e+00 225 190 208
2.036877e+00 3.366264e-01 -6.321584e+00 147 111 50
4.875100e-01 8.530421e-01 -5.459137e+00 148 19 29
1.681435e+00 1.392406e+00 -5.405673e+00 69 30 30
2.263039e+00 -3.798335e+00 -1.069310e+01 84 79 97
2.470418e+00 -3.236512e+00 -1.022421e+01 98 89 106
2.784283e+00 -2.799519e+00 -9.198030e+00 56 43 54
1.696129e+00 -3.592582e+00 -1.220722e+01 10 10 12
1.696129e+00 -3.592582e+00 -1.220722e+01 10 10 12
2.638020e+00 -2.795728e+00 -9.644337e+00 59 47 61
2.638020e+00 -2.795728e+00 -9.644337e+00 59 47 61
2.445232e+00 -2.906645e+00 -1.020738e+01 59 52 64
2.445232e+00 -2.906645e+00 -1.020738e+01 59 52 64
1.602719e+00 -2.709186e+00 -1.235463e+01 47 38 45
1.918229e+00 -2.277475e+00 -1.149231e+01 52 42 42
1.872420e+00 -1.122070e+00 -6.705877e+00 203 182 70
2.470331e+00 -5.689719e-01 -5.337913e+00 227 196 213
2.497611e+00 -3.926219e-01 -5.285004e+00 236 188 201
2.503609e+00 -3.330352e-01 -5.261091e+00 245 191 207
2.103255e+00 -2.594902e-01 -6.089984e+00 114 69 10
-5.414077e-01 -6.907869e-02 -4.724335e+00 229 178 190
-4.460180e-01 1.986760e-01 -4.592304e+00 225 164 172
4.799590e-01 2.300541e-01 -5.606777e+00 125 4 14
2.072948e+00 2.840974e-01 -6.337733e+00 84 49 7
-3.868033e-01 4.314895e-01 -4.595435e+00 207 155 168
2.137827e+00 6.158977e-01 -6.220664e+00 176 139 90
3.686306e-01 5.588332e-01 -5.398058e+00 156 27 44
-6.118802e-01 5.763682e-01 -4.540105e+00 189 126 143
-6.118802e-01 5.763682e-01 -4.540105e+00 189 126 143
2.931866e-01 6.890092e-01 -5.273393e+00 219 197 209
4.388769e-01 7.058793e-01 -5.331016e+00 246 224 228
4.388769e-01 7.058793e-01 -5.331016e+00 246 224 228
-6.382374e-01 6.262810e-01 -4.523469e+00 170 104 126
5.193691e-01 8.199863e-01 -5.495253e+00 205 172 197
-7.234071e-01 6.871353e-01 -4.502953e+00 233 178 193
-7.638634e-01 7.204143e-01 -4.505303e+00 226 172 182
-1.028582e+00 7.392449e-01 -4.515750e+00 229 167 180
1.204692e+00 1.107889e+00 -5.140381e+00 184 132 143
2.743458e+00 -3.061745e+00 -9.392205e+00 52 45 57
2.432025e+00 -3.333045e+00 -1.029605e+01 101 97 119
2.373609e+00 -3.327456e+00 -1.041267e+01 105 97 118
2.123848e+00 -3.477938e+00 -1.104537e+01 53 51 65
2.107273e+00 -3.416445e+00 -1.106225e+01 85 78 96
2.048348e+00 -3.357879e+00 -1.119484e+01 39 35 49
2.717786e+00 -2.699570e+00 -9.449648e+00 57 41 47
2.717786e+00 -2.699570e+00 -9.449648e+00 57 41 47
2.334564e+00 -2.815957e+00 -1.053223e+01 57 46 54
1.590852e+00 -3.362132e+00 -1.256758e+01 88 85 103
2.396932e+00 -2.093623e+00 -8.014201e+00 187 178 144
2.484101e+00 -2.542716e+00 -9.994836e+00 67 55 65
1.649942e+00 -3.000782e+00 -1.237961e+01 54 48 60
2.255452e+00 -1.974918e+00 -8.314199e+00 113 98 80
2.045315e+00 -2.346958e+00 -1.124191e+01 63 47 57
2.256795e+00 -2.207054e+00 -1.062749e+01 121 118 134
2.114177e+00 -8.369269e-01 -6.232110e+00 216 192 86
2.474555e+00 -5.957849e-01 -5.413850e+00 221 70 104
2.472475e+00 -5.133306e-01 -5.378935e+00 239 180 193
2.021552e+00 -5.311899e-01 -6.415756e+00 228 191 78
2.210472e+00 -4.435517e-01 -6.041522e+00 229 196 57
2.210472e+00 -4.435517e-01 -6.041522e+00 229 196 57
8.288492e-01 -3.442945e-01 -5.412019e+00 169 46 60
2.160061e+00 -3.337026e-01 -6.095286e+00 97 62 2
2.509012e+00 -2.761196e-01 -5.242709e+00 232 191 210
2.134537e+00 -2.958419e-01 -6.100008e+00 120 75 14
2.509011e+00 -2.227023e-01 -5.280501e+00 240 192 195
2.104980e+00 2.984987e-01 -6.324417e+00 176 139 48
-3.662514e-01 4.495470e-01 -4.635730e+00 171 123 144
-3.534242e-01 4.771968e-01 -4.659860e+00 220 191 199
-1.023173e+00 4.870672e-01 -4.563352e+00 173 160 195
1.485531e-01 6.028151e-01 -5.330795e+00 73 21 45
3.745489e-01 6.480773e-01 -5.342898e+00 243 214 219
1.581136e-01 6.947724e-01 -5.370924e+00 71 6 13
-6.112601e-01 6.203988e-01 -4.546401e+00 237 174 184
-8.955487e-01 7.135988e-01 -4.494897e+00 228 165 173
-9.520238e-01 7.983330e-01 -4.519158e+00 157 100 122
-3.708251e+00 3.755887e+00 -1.143847e+01 146 93 86
2.138507e+00 -3.828625e+00 -1.100307e+01 51 45 59
2.177911e+00 -3.775093e+00 -1.089264e+01 89 87 105
9.572428e-01 -4.899406e+00 -1.414759e+01 48 48 57
2.169912e+00 -3.667852e+00 -1.086805e+01 88 85 102
2.614275e+00 -3.267199e+00 -9.778435e+00 59 54 71
2.908533e+00 -2.940441e+00 -8.930340e+00 56 47 62
2.323697e+00 -3.404396e+00 -1.061317e+01 99 95 118
2.259167e+00 -3.428280e+00 -1.078638e+01 56 46 58
2.745558e+00 -2.909850e+00 -9.338676e+00 117 110 126
2.297400e+00 -3.206362e+00 -1.053853e+01 53 46 61
2.451529e+00 -3.081474e+00 -1.019085e+01 68 59 74
2.091273e+00 -3.329426e+00 -1.116602e+01 88 81 97
1.577547e+00 -3.740491e+00 -1.256881e+01 36 26 32
2.433413e+00 -3.002093e+00 -1.022670e+01 100 93 109
1.916656e+00 -3.405111e+00 -1.165496e+01 52 47 68
1.916656e+00 -3.405111e+00 -1.165496e+01 52 47 68
2.586462e+00 -2.754631e+00 -9.761597e+00 47 34 47
2.033418e+00 -3.197194e+00 -1.137737e+01 90 78 86
1.782025e+00 -3.375386e+00 -1.204897e+01 44 36 49
2.376539e+00 -2.833006e+00 -1.031193e+01 57 46 60
1.918027e+00 -3.074249e+00 -1.162509e+01 57 49 60
1.916005e+00 -2.994829e+00 -1.158348e+01 89 85 99
1.916005e+00 -2.994829e+00 -1.158348e+01 89 85 99
2.427614e+00 -2.491534e+00 -1.020377e+01 106 99 115
2.427614e+00 -2.491534e+00 -1.020377e+01 106 99 115
2.342124e+00 -2.516713e+00 -1.040834e+01 64 53 67
2.342124e+00 -2.516713e+00 -1.040834e+01 64 53 67
1.224279e+00 -2.955672e+00 -1.358770e+01 74 67 78
2.083084e+00 -2.172811e+00 -1.113100e+01 68 55 68
2.299333e+00 -1.105327e+00 -5.814578e+00 197 196 106
2.264708e+00 -2.004803e+00 -1.064615e+01 71 60 79
2.125056e+00 -1.989157e+00 -1.088227e+01 91 79 87
2.125056e+00 -1.989157e+00 -1.088227e+01 91 79 87
1.960143e+00 -2.004571e+00 -1.139667e+01 62 50 55
2.479620e+00 -4.728274e-01 -5.362202e+00 233 187 193
2.224914e+00 -2.301995e-01 -6.020281e+00 175 144 33
2.515363e+00 -1.824133e-01 -5.269603e+00 237 192 205
2.147362e+00 5.420121e-01 -6.177208e+00 139 84 16
-7.750689e-01 4.683138e-01 -4.546745e+00 182 160 191
-9.760364e-01 5.127633e-01 -4.533080e+00 147 198 228
-8.470267e-01 6.408081e-01 -4.524691e+00 235 199 217
5.213291e-01 8.663629e-01 -5.470467e+00 202 159 176
-7.460234e-01 7.406603e-01 -4.505139e+00 146 87 107
3.745081e-01 9.383299e-01 -5.497893e+00 203 132 150
-8.520987e-01 8.164581e-01 -4.520630e+00 216 161 173
5.133377e-01 1.080976e+00 -5.542022e+00 142 34 59
-3.708388e+00 3.322010e+00 -1.141930e+01 144 80 72
-5.044455e+00 3.363427e+00 -1.115405e+01 128 72 58
-5.044455e+00 3.363427e+00 -1.115405e+01 128 72 58
-5.188618e+00 3.351876e+00 -1.108505e+01 125 72 64
-5.188618e+00 3.351876e+00 -1.108505e+01 125 72 64
-3.626974e+00 3.463522e+00 -1.149214e+01 129 57 41
-3.707993e+00 3.476442e+00 -1.153351e+01 130 57 30
-4.757957e+00 3.441037e+00 -1.114186e+01 130 72 56
-3.595181e+00 3.538707e+00 -1.146659e+01 132 53 30
-4.635956e+00 3.545769e+00 -1.119577e+01 134 72 65
-4.596131e+00 3.629710e+00 -1.116824e+01 135 75 58
-3.317949e+00 3.748773e+00 -1.149080e+01 143 85 86
2.344281e+00 -1.628639e+00 -5.654979e+00 214 38 63
6.921562e-01 2.839314e-01 -5.512659e+00 204 29 53
6.921562e-01 2.839314e-01 -5.512659e+00 204 29 53
-7.419460e-01 -2.824467e-01 -5.012830e+00 235 183 196
-7.949585e-01 5.662680e-01 -4.534394e+00 162 189 226
2.092591e+00 1.104038e+00 -5.856944e+00 212 176 116
-2.992600e+00 3.486529e+00 -1.394913e+01 29 26 34
7.897006e-01 -3.976409e-03 -5.632423e+00 81 4 10
-2.806939e+00 3.746539e+00 -1.583473e+01 96 85 103
1.209981e+00 -2.492945e+00 -1.285285e+01 25 29 49
1.885414e+00 -1.010027e+00 -6.657646e+00 203 178 60
1.257184e+00 -5.766567e-02 -5.279326e+00 215 151 156
6.998845e-01 7.687670e-02 -5.691227e+00 199 45 81
2.763120e-01 1.346512e-01 -5.532227e+00 204 42 82
7.115236e-01 1.711153e-01 -5.615413e+00 111 13 20
-5.803826e-01 4.064078e-01 -4.565935e+00 211 160 172
4.859945e-01 8.974679e-01 -5.513910e+00 138 12 28
-9.110983e-01 7.714720e-01 -4.516713e+00 224 165 176
1.987306e+00 -2.249432e+00 -1.150223e+01 104 96 105
8.298511e-01 1.595425e-02 -5.605185e+00 223 197 213
2.139709e+00 5.496348e-01 -6.149517e+00 149 93 24
1.061137e+00 6.074847e-01 -5.405789e+00 102 6 13
-7.866153e-01 9.336601e-01 -4.572269e+00 158 124 143
2.870056e+00 -3.095827e+00 -9.092165e+00 122 117 137
2.642653e+00 -3.208596e+00 -9.693394e+00 117 111 132
2.225402e+00 -2.955001e+00 -1.079950e+01 108 101 117
2.557982e+00 -2.529751e+00 -9.864808e+00 120 114 129
2.488250e+00 -2.547363e+00 -1.001298e+01 67 55 65
2.217906e+00 -1.426670e+00 -5.892386e+00 201 153 45
2.217906e+00 -1.426670e+00 -5.892386e+00 201 153 45
2.264234e+00 -2.322187e+00 -1.074731e+01 74 53 61
2.116711e+00 -7.975683e-01 -6.207674e+00 217 194 83
2.157641e+00 -6.971114e-01 -6.139255e+00 163 137 40
2.198764e+00 -4.701850e-01 -6.029966e+00 225 194 63
-8.371894e-01 3.918552e-01 -4.581731e+00 245 237 249
1.040989e+00 5.119850e-01 -5.423285e+00 201 41 74
2.850624e+00 -3.190405e+00 -9.239086e+00 116 113 136
2.420386e+00 -3.378518e+00 -1.023959e+01 51 47 63
2.834924e+00 -2.930138e+00 -9.141504e+00 115 100 121
2.706224e+00 -3.023226e+00 -9.497689e+00 32 30 45
2.561468e+00 -3.095130e+00 -9.957799e+00 115 109 126
2.289168e+00 -3.206180e+00 -1.067195e+01 113 109 127
2.519134e+00 -2.598678e+00 -9.924771e+00 67 61 76
2.337458e+00 -2.749206e+00 -1.050006e+01 116 108 123
2.370440e+00 -2.503062e+00 -1.031592e+01 104 104 123
2.454188e+00 -2.400930e+00 -1.006460e+01 111 103 121
2.006097e+00 -1.974275e+00 -1.135769e+01 107 91 101
2.466998e+00 -5.426799e-01 -5.344806e+00 208 106 133
2.466998e+00 -5.426799e-01 -5.344806e+00 208 106 133
2.458570e+00 -4.809274e-01 -5.370023e+00 206 60 87
2.490594e+00 -4.194790e-01 -5.324620e+00 208 95 123
2.221722e+00 -4.282618e-01 -5.982159e+00 167 135 16
-7.901619e-01 -2.605520e-01 -4.935251e+00 165 188 229
2.504607e+00 -1.995823e-01 -5.282926e+00 215 80 98
2.504607e+00 -1.995823e-01 -5.282926e+00 215 80 98
2.243151e+00 -1.419162e-02 -5.929459e+00 167 136 16
2.436435e+00 9.477509e-02 -5.420048e+00 184 158 92
-6.258726e-01 4.515400e-01 -4.595945e+00 220 158 170
1.965210e-01 6.642897e-01 -5.337636e+00 187 157 176
-7.160336e-01 9.117438e-01 -4.581813e+00 132 93 111
-2.360336e+00 2.988269e+00 -1.159308e+01 91 86 95
1.586791e+00 3.869262e-01 -5.871051e+00 205 41 51
-2.366961e+00 1.636332e+00 -1.198245e+01 124 105 114
1.848640e+00 -1.097308e+00 -6.642871e+00 226 207 90
-7.340685e-01 3.349476e-01 -4.682838e+00 223 153 168
-7.340685e-01 3.349476e-01 -4.682838e+00 223 153 168
1.324470e+00 1.306808e-01 -5.404012e+00 132 26 23
9.469268e-01 1.621966e-01 -5.649791e+00 135 14 22
-8.991112e-01 2.102205e-01 -4.595987e+00 223 160 168
1.396831e+00 1.308900e+00 -5.231037e+00 200 144 155
-1.848392e+00 1.928226e+00 -1.128317e+01 121 100 115
-4.656828e-01 -1.339921e-01 -4.935882e+00 251 208 218
1.133138e+00 7.084003e-02 -5.372242e+00 134 59 62
7.719371e-01 -2.212032e+00 -1.195695e+01 150 127 125
-7.686290e-01 3.158649e-01 -4.575028e+00 217 152 166
3.701432e-01 6.504167e-01 -5.360675e+00 249 236 236
2.082879e+00 -1.748306e+00 -8.774372e+00 197 186 164
1.880631e+00 -1.024701e+00 -6.648195e+00 234 210 88
2.159879e+00 -5.992885e-01 -6.033490e+00 243 216 80
2.210806e+00 -5.032733e-01 -5.989995e+00 190 158 35
2.210806e+00 -5.032733e-01 -5.989995e+00 190 158 35
-5.101288e-01 3.548970e-01 -4.555642e+00 186 125 131
-5.484663e-01 4.210992e-01 -4.558503e+00 149 91 108
-9.009606e-01 8.037081e-01 -4.521338e+00 184 119 134
2.264208e+00 -2.213461e+00 -1.064935e+01 153 149 170
2.090469e+00 -8.041279e-01 -6.243955e+00 184 192 135
2.090469e+00 -8.041279e-01 -6.243955e+00 184 192 135
2.183364e+00 -5.571155e-01 -6.075662e+00 246 219 83
1.154988e+00 -3.098146e-01 -5.292515e+00 163 93 103
1.240619e+00 -9.761695e-02 -5.269264e+00 156 83 91
-5.287459e-01 3.338116e-01 -4.557305e+00 247 197 208
2.545358e+00 -2.943431e+00 -9.904172e+00 140 131 150
2.464766e+00 -2.593484e+00 -1.007082e+01 128 115 128
2.315098e+00 -2.711472e+00 -1.052952e+01 80 68 82
2.115718e+00 -8.977801e-01 -6.199809e+00 200 170 46
2.115718e+00 -8.977801e-01 -6.199809e+00 200 170 46
2.160852e+00 -8.442165e-01 -6.107778e+00 200 173 44
2.121143e+00 -8.288326e-01 -6.167533e+00 196 170 45
2.121143e+00 -8.288326e-01 -6.167533e+00 196 170 45
1.906531e+00 -2.063548e+00 -1.157937e+01 74 49 49
2.214376e+00 -4.663069e-01 -5.990925e+00 206 173 42
-8.998799e-01 -3.774622e-01 -5.202764e+00 236 189 200
2.200495e+00 -3.470144e-01 -6.034148e+00 206 171 32
-9.438468e-01 -2.121873e-01 -5.008053e+00 157 204 237
-9.523537e-01 -1.653346e-01 -4.962585e+00 119 141 190
8.874474e-01 1.433087e-01 -5.628128e+00 150 41 66
-9.264015e-01 3.145724e-01 -4.618597e+00 228 166 183
-6.936230e-01 3.916602e-01 -4.574932e+00 202 130 146
3.274181e-01 6.400296e-01 -5.319211e+00 155 106 126
3.410858e-01 6.642293e-01 -5.329068e+00 247 224 229
-1.076758e+00 8.153330e-01 -4.565387e+00 249 196 203
1.631283e+00 1.416826e+00 -5.381708e+00 189 140 135
2.191410e-02 7.259196e-02 5.748562e-02 0 255 0
2.191167e-02 7.201657e-02 7.488936e-03 255 255 0
-6.190939e-01 7.561565e-01 4.090143e-01 255 0 0
-6.161365e-01 7.531525e-01 3.591924e-01 255 255 0
-1.212884e+00 2.421000e-01 -2.856944e-01 0 255 0
-1.201334e+00 2.401764e-01 -3.343040e-01 255 255 0
